900
651.613  632.541  550.228
640.515  627.126  541.772
628.797  606.506  524.393
535.238  678.691  606.164
550.268  670.464  597.855
563.813  650.496  573.65
510.909  498.59  260.713
508.49  503.41  276.152
520.339  520.105  305.525
557.437  528.657  531.682
556.06  529.432  514.131
559.235  529.664  488.806
503.215  512.031  248.945
514.618  517.683  272.298
517.636  519.008  300.35
416.989  371.41  646.413
421.521  376.745  628.425
431.99  391.394  603.168
506.341  510.57  516.936
499.538  494.939  528.745
480.112  470.302  540.645
522.416  503.325  363.849
520.904  499.304  383.397
518.486  497.44  416.178
325.097  488.699  446.988
345  486.164  444.308
375.421  490.303  440.103
602.22  388.125  565.547
578.55  393.221  550.645
564.616  410.696  547.517
311.612  699.81  560.785
326.484  686.79  563.206
343.412  660.996  558.933
516.528  512.928  402.695
509.784  531.218  419.646
485.93  542.108  433.729
511.989  514.446  448.892
506.807  530.896  444.822
484.97  546.303  431.627
537.34  492.9  532.395
526.94  497.259  513.557
519.128  519.093  496.393
723.31  319.666  571.091
710.93  333.704  569.181
684.109  352.963  556.731
600.962  514.377  494.732
600.746  494.704  496.635
611.047  465.837  502.861
497.868  507.168  498.094
511.22  497.899  497.449
553.999  495.8  507.211
496.908  495.335  528.59
514.569  492.512  518.339
544.029  494.656  509.475
531.113  525.798  564.578
535.315  518.271  549.545
541.209  503.521  525.794
551.39  479.534  640.504
539.623  477.469  613.004
543.865  489.392  591.405
473.996  513.649  662.157
488.307  513.73  650.781
509.753  499.774  630.608
481.441  735.956  681.577
480.289  713.741  675.465
486.372  687.393  671.012
289.198  390.308  415.823
292.176  403.318  424.805
307.44  423.715  442.352
511.365  513.048  250.155
491.536  502.892  261.248
471.474  492.444  282.482
288.657  608.22  560.285
303.143  605.86  550.629
312.734  593.967  525.883
580.496  431.553  741.475
568.757  445.927  731.883
545.813  452.714  711.057
503.925  501.745  509.336
515.098  505.663  534.661
520.776  498.198  563.553
630.587  379.056  548.761
621.268  399.194  555.49
592.514  419.484  552.004
483.858  400.549  503.601
506.038  407.201  513.988
521.8  406.449  519.497
503.15  506.047  460.859
511.661  494.009  474.876
512.773  467.284  488.265
474.874  700.553  675.872
475.831  681.155  662.35
481.353  663.994  649.214
518.124  512.717  519.053
522.818  526.903  536.249
509.788  545.901  547.818
432.187  593.005  512.987
444.185  581.092  517.954
467.385  564.843  527.796
419.878  454.552  723.455
428.927  467.298  709.511
434.672  488.382  687.503
367.54  613.972  545.72
377.861  612.891  566.719
388.314  585.337  583.592
509.727  500.452  643.334
501.179  514.79  639.745
471.246  526.392  624.607
487.887  553.252  335.599
484.624  549.766  353.722
494.756  557.136  391.775
500.435  499.826  770.859
502.269  509.414  753.615
499.941  503.921  719.222
414.69  744.752  539.829
420.822  737.644  557.189
429.118  706.9  567.772
495.26  560.594  463.399
488.053  575.339  473.145
470.373  589.215  482.573
596.642  506.902  539.572
576.015  519.76  529.785
563.942  540.067  526.737
652.165  441.481  375.782
639.522  447.86  388.064
623.51  462.051  408.781
641.831  268.15  478.841
636.88  285.596  469.019
640.963  316.58  464.323
346.749  451.688  409.463
367.558  443.387  415.088
389.549  427.667  415.518
433.609  274.044  430.745
423.649  288.655  425.033
418.064  321.936  424.509
495.076  574.573  535.106
494.454  561.394  534.095
491.628  543.579  527.095
387.875  620.925  323.228
396.914  612.403  340.293
409.414  603.527  365.625
531.706  586.27  516.1
524.054  592.605  504.542
503.241  594.51  482.584
477.045  484.263  266.465
475.003  488.879  281.912
478.516  502.994  307.901
530.934  502.921  468.396
528.405  505.343  451.503
505.947  498.506  414.197
445.156  688.794  662.344
449.031  673.082  645.197
450.138  652.828  617.961
359.272  718.419  469.065
371.855  713.126  485.852
387.472  702.463  509.314
507.524  513.072  393.024
503.916  531.753  406.333
486.728  553.455  418.418
536.736  491.413  428.101
524.134  509.45  427.084
502.405  529.96  420.081
610.821  650.146  559.375
609.162  644.874  550.246
582.857  623.718  526.576
504.388  511.196  792.386
512.575  517.716  771.596
514.086  524.584  741.62
424.113  485.752  303.644
435.146  489.652  326.517
433.659  489.372  350.955
444.525  738.877  671.921
445.2  733.749  660.793
447.058  709.485  636.532
450.725  539.338  781.657
452.446  556.47  768.814
452.191  581.397  751.07
511.754  478.575  473.863
513.86  487.867  495.161
507.757  499.921  523.97
623.579  419.604  505.056
618.278  439.069  515.446
583.422  448.024  511.975
280.68  577.295  332.633
298.665  572.537  343.913
321.033  558.038  355.931
279.321  412.473  492.135
282.668  424.292  475.86
292.743  448.629  457.751
473.542  456.248  350.891
451.409  453.024  357.848
425.081  449.612  372.972
500.635  389.59  645.241
492.46  391.271  624.379
491.41  400.754  600.746
503.047  510.375  491.836
506.883  499.862  511.713
499.787  475.066  529.855
376.748  432.832  307.816
383.865  435.826  323.851
401.324  439.633  349.723
328.429  424.629  419.04
334.656  423.481  399.462
364.267  431.638  382.498
633.638  536.352  260.098
607.751  524.569  263.937
586.911  518.81  278.045
336.222  572.658  663.773
347.587  571.767  647.089
368.437  573.844  623.902
454.196  452.984  464.613
446.118  464.016  479.096
433.563  480.494  502.053
435.88  516.575  596.487
430.593  502.89  569.783
437.452  495.947  546.94
493.158  502.184  771.677
484.445  497.945  751.779
476.422  503.16  722.343
526.22  509.759  506.166
526.826  510.183  528.456
517.942  507.01  555.378
540.546  529.152  569.703
517.167  508.121  555.281
503.016  495.548  551.516
527.339  503.463  524.518
518.613  502.245  543.458
500.053  492.123  565.952
511.092  517.172  538.056
508.751  503.189  552.74
492.599  486.579  571.532
563.969  568.713  392.742
558.293  556.724  409.8
544.534  545.691  435.735
481.576  527.668  733.603
491.479  530.114  720.745
492.682  530.628  687.324
523.151  564.899  423.025
508.78  551.247  433.306
509.977  550.226  465.957
499.554  502.875  500.287
512.651  529.578  499.339
514.971  552.372  480.593
513.672  750.429  412.055
512.161  725.481  415.931
511.11  702.271  426.539
494.285  526.122  492.993
499.953  546.68  488.011
505.883  573.11  479.196
491.839  586.81  479.522
505.922  573.55  479.492
506.279  534.995  461.014
719.912  424.624  637.322
691.765  423.065  615.775
676.574  442.697  605.236
455.333  548.766  499.576
468.553  536.627  504.486
506.831  534.15  527.312
479.696  672.414  608.225
477.513  651.802  594.195
487.842  627.615  582.263
526.495  667.64  382.112
522.525  662.865  401.93
515.609  659.643  432.306
467.436  349.078  737.855
470.346  362.404  725.086
473.208  383.283  705.126
596.623  601.295  486.444
589.075  589.387  500.827
570.373  562.402  514.762
397.473  554.128  295.745
407.957  552.319  309.852
428.007  556.098  334.138
367.478  510.032  440.266
379.527  520.118  425.077
391.272  527.147  396.564
503.037  497.001  682.772
496.253  496.83  666.477
487.335  498.613  638.16
362.573  395.922  684.379
372.556  406.91  676.721
394.216  428.212  667.595
686.877  417.879  702.268
669.211  424.236  703.924
637.001  418.272  697.295
563.099  530.911  616.357
570.419  515.161  623.237
584.315  487.086  635.464
514.615  534.059  531.973
519.873  520.166  539.798
542.319  518.232  569.028
702.81  677.158  615.132
691.593  667.666  612.943
673.68  647.285  608.765
700.758  579.485  655.64
691.848  588.149  639.456
678.777  608.395  621.039
555.909  513.849  233.699
558.665  517.666  251.003
577.684  530.456  282.009
404.539  338.273  474.709
419.24  352.545  467.087
432.082  369.082  445.312
493.942  538.135  234.381
482.891  520.774  247.584
481.356  510.596  274.075
784.47  503.763  506.823
749.52  489.375  482.952
735.727  502.161  474.115
514.41  508.717  511.345
534.08  504.38  506.662
566.001  504.085  504.402
495.039  509.931  481.761
513.359  506.156  484.996
545.615  505.298  497.649
402.273  371.522  745.804
412.301  376.299  726.86
422.722  388.909  703.204
665.841  410.174  353.625
657.841  410.739  372.12
647.907  413.669  401.01
565.91  363.835  503.137
572.649  371.56  485.384
586.997  378.909  461.296
501.724  508.9  462.72
518.434  497.541  467.751
528.836  470.937  464.083
553.714  728.393  633.724
548.491  706.498  620.05
551.335  686.72  608.333
568.518  499.983  718.674
565.631  517.804  711.066
559.945  539.794  691.015
507.113  504.041  527.712
511.273  502.736  541.936
520.029  507.736  567.4
358.769  573.657  278.06
366.248  564.868  292.997
389.116  567.856  324.295
683.481  533.149  571.799
671.686  537.888  563.434
634.617  532.31  536.798
551.132  588.42  253.483
563.576  588.702  274.386
564.582  576.356  298.622
621.939  496.952  317.908
605.319  508.613  310.832
586.168  535.368  306.012
507.267  482.573  505.85
524.285  491.021  492.701
529.532  493.858  463.118
423.689  543.588  644.578
437.467  541.287  631.046
449.618  531.02  601.903
515.619  486.235  543.789
509.519  502.262  562.377
491.911  515.257  580.327
479.686  358.402  351.103
479.956  372.121  368.094
483.058  389.787  394.162
579.634  450.705  398.588
564.157  443.059  397.92
532.798  420.679  391.07
341.436  480.79  538.654
362.366  481.545  532.736
385.583  473.328  515.761
308.897  626.997  324.621
314.718  612.819  338.723
321.423  590.746  359.772
670.367  516.824  558.129
661.365  525.371  554.655
635.824  530.907  538.742
486.743  613.948  410.405
505.009  609.816  425.06
522.807  596.022  442.305
738.999  480.939  509.602
717.287  489.508  503.638
690.775  504.114  494.197
695.762  354.059  472.807
700.949  375.94  479.231
700.282  405.153  484.449
374.493  457.105  527.698
390.09  447.888  519.258
421.932  444.566  519.157
513.011  442.624  503.134
490.226  442.78  505.719
466.827  445.882  513.564
466.769  689.23  560.231
464.365  666.508  553.024
461.481  631.709  544.134
398.819  749.945  387.925
400.031  731.674  398.918
409.189  717.75  423.544
504.038  505.59  504.128
501.92  524.166  501.54
485.148  550.735  488.497
507.988  471.297  466.111
504.969  492.031  473.883
496.034  519.245  480.35
389.361  399.754  457.351
400.854  416.377  459.231
424.251  439.276  466.189
550.807  413.091  278.167
535.935  410.512  293.643
518.466  419.994  320.654
461.229  469.311  526.222
462.527  460.648  504.326
476.478  463.994  483.039
701.636  594.681  430.334
680.788  576.545  430.303
657.219  563.079  435.05
508.254  484.494  720.95
508.786  483.298  698.36
525.933  493.373  674.391
494.767  284.393  634.815
503.4  305.568  637.934
499.583  333.575  640.244
398.862  438.786  301.678
398.431  432.373  318.915
411.639  422.314  348.589
495.057  515.331  449.258
479.474  500.205  431.971
466.915  479.838  414.8
601.874  532.134  569.728
583.539  523.436  552.021
564.971  521.021  531.213
559.371  586.016  399.801
553.916  572.554  414.252
559.017  562.034  443.765
457.364  539.816  285.235
471.234  543.685  302.396
479.143  542.076  322.778
573.403  592.228  500.26
562.003  587.973  482.34
550.388  583.453  457.424
482.182  472.054  522.935
493.647  487.039  516.066
510.396  512.192  503.259
688.91  478.235  679.998
671.985  480.208  667.021
645.233  481.577  641.475
604.881  488.335  487.232
617.272  493.375  511.316
617.35  485.445  536.044
388.129  525.084  528.973
404.745  522.195  527.648
437.082  521.527  532.915
460.248  505.851  497.104
444.545  513.791  510.588
431.745  519.986  535.86
448.291  553.878  339.85
448.034  552.097  360.846
446.226  546.124  391.142
506.058  501.004  429.614
496.208  514.704  422.765
476.332  529.987  408.473
429.551  723.802  532.785
431.082  706.58  520.597
439.304  686.635  508.134
483.337  787.657  498.781
483.577  774.591  503.056
467.013  742.781  499.012
571.299  544.546  549.234
561.464  555.505  543.518
548.731  581.48  536.049
516.658  495.93  648.895
515.179  501.755  626.706
519.345  521.995  605.705
511.742  593.57  619.972
518.112  576.329  619.075
525.014  543.508  612.633
571.484  278.168  541.22
582.977  304.104  558.157
572.867  327.613  562.848
488.192  482.666  528.292
496.297  464.873  529.909
514.558  440.632  538.863
396.897  411.031  515.905
413.381  411.213  516.67
445.059  423.535  525.163
514.556  528.404  490.504
500.188  510.035  493.773
485.106  485.215  500.609
606.762  702.398  444.797
602.435  689.176  450.079
586.983  664.039  455.297
228.372  532.97  630.724
250.708  544.536  624.268
275.228  548.842  611.52
527.862  403.485  641.923
509.657  417.05  644.848
483.052  436.441  642.927
505.577  513.681  510.018
500.055  499.172  523.774
494.313  482.067  549.197
379.857  261.475  477.002
387.73  277.231  483.356
398.254  301.696  487.322
540.881  388.306  410.441
522.999  377.026  416.208
501.223  366.046  432.445
511.418  474.165  670.117
506.779  468.023  653.202
502.787  452.922  620.774
503.451  506.665  668.069
508.551  493.783  658.922
507.958  468.41  639.932
283.342  488.564  397.423
291.859  484.728  407.541
318.593  485.106  432.842
484.898  613.386  766.743
479.54  611.497  758.356
464.983  589.772  725.182
353.546  586.476  564.099
371.313  588.46  585.97
383.077  590.747  605.101
512.348  480.215  488.375
495.681  485.972  496.84
487.96  505.79  522.211
495.474  516.584  534.537
481.379  503.496  516.015
464.49  496.405  495.3
583.11  422.594  413.129
576.13  434.903  428.055
550.288  451.063  442.857
453.187  580.764  576.779
460.007  569.358  562.011
474.997  551.837  546.822
531.077  650.47  583.122
528.51  640.245  581.022
516.539  623.967  574.572
532.039  380.146  516.526
528.515  399.49  519.104
534.316  432.313  531.961
533.567  512.372  616.727
531.856  493.708  602.48
530.546  479.495  580.345
618.91  582.909  418.58
610.693  569.379  433.488
602.578  561.513  460.494
732.372  552.364  443.313
707.757  551.002  441.764
680.487  548.206  445.957
487.663  534.094  556.154
506.425  532.921  546.596
530.633  530.241  528.385
502.963  592.893  374.482
506.451  583.169  392.681
506.128  570.106  418.226
553.299  416.413  280.023
549.995  428.626  292.776
543.163  451.71  312.328
270.882  379.581  520.266
283.771  379.258  503.921
310.983  390.726  490.565
572.237  481.665  694.461
557.586  476.382  681.487
531.81  468.283  664.255
663.141  463.992  596.36
647.587  461.228  605.41
613.849  466.472  619.946
489.227  510.339  567.16
502.711  500.87  569.065
534.992  492.198  584.56
559.061  358.857  586.984
554.99  378.296  585.475
552.702  409.393  590.376
546.556  474.966  349.397
547.243  470.1  368.956
551.343  464.341  400.819
641.78  450.945  519.755
629.953  453.026  504.314
612.386  454.92  480.485
500.644  461.119  289.691
511.921  461.408  307.598
527.88  461.266  334.475
634.864  402.898  459.36
622.053  405.682  442.858
610.354  420.787  428.347
515.419  473.961  486.225
531.264  463.515  475.966
550.512  451.245  461.367
521.012  583.375  520.259
525.878  568.853  515.522
534.144  547.103  504.45
427.608  507.459  483.039
443.277  513.861  485.991
477.192  524.95  493.657
249.784  438.233  448.747
264.462  443.368  452.176
293.032  454.278  456.167
505.859  346.122  666.547
485.333  353.78  648.459
473.583  363.354  634.567
517.741  288.32  384.734
506.913  292.147  400.373
506.002  300.723  429.961
581.147  478.426  474.913
576.339  463.142  474.093
561.83  437.336  464.2
558.551  681.819  685.261
562.827  670.092  675.844
557.026  641.651  648.149
550.694  452.908  587.357
546.969  471.817  591.805
549.682  498.343  600.761
574.755  521.362  413.122
564.516  516.129  429.16
566.862  516.903  462.347
525.197  536.44  583.371
529.865  530.768  564.723
545.101  532.019  540.878
507.641  504.971  497.183
521.377  516.329  513.92
530.697  524.545  528.303
319.012  432.974  589.328
342.904  443.888  590.559
367.823  458.283  582.565
403.843  488.822  295.635
403.874  489.044  318.19
395.648  481.115  344.837
459.908  770.747  544.328
450.836  745.96  528.327
451.8  729.71  516.874
566.916  400.679  317.58
559.889  415.647  326.43
552.081  437.891  341.583
391.198  613.18  684.349
401.868  609.086  671.975
411.169  597.385  646.249
513.534  506.977  633.367
499.778  520.443  637.625
476.618  537.195  637.801
534.316  485.584  541.792
527.947  494.287  559.013
508.786  503.837  579.136
536.612  506.032  672.842
519.823  501.771  642.081
516.955  504.839  618.719
506.148  509.442  528.978
505.27  511.871  548.327
515.356  508.995  580.307
453.371  596.171  441.581
462.647  588.333  459.702
465.33  564.36  477.259
472.844  580.227  417.984
477.351  581.413  442.432
463.922  569.936  464.252
422.696  519.212  779.398
422.067  519.424  756.846
427.786  522.69  722.949
622.638  502.285  560.121
609.919  506.544  577.761
580.546  508.824  594.029
517.394  487.799  369.54
522.36  487.436  386.866
530.186  492.277  415.589
330.153  674.318  568.166
337.485  655.474  551.624
359.523  645.498  543.266
436.528  537.382  403.916
433.143  549.194  420.806
418.231  567.908  442.541
566.616  617.998  473.785
548.88  610.529  469.128
529.138  609.378  468.786
396.673  486.748  386.649
414.098  498.914  397.43
431.79  512.522  405.571
484.056  434.993  681.277
480.791  440.405  659.685
477.244  451.935  635.04
442.395  635.14  618.373
439.028  605.104  613.06
451.42  583.396  621.82
500.652  547.657  498.569
488.291  548.624  512.818
483.551  556.418  540.753
517.188  491.95  319.666
521.848  499.862  341.352
504.908  499.208  363.796
546.428  522.641  703.098
540.308  517.983  676.275
549.053  524.91  657.676
570.297  587.802  415.177
570.241  580.085  434.826
563.667  574.031  463.65
578.853  560.778  697.11
577.676  559.465  677.735
574.457  555.405  641.239
559.728  480.888  420.015
560.805  487.795  439.401
563.955  503.469  468.532
425.129  523.783  618.64
441.005  518.502  604.405
463.908  518.783  582.647
509.895  509.492  624.589
492.287  509.348  607.655
469.381  516.244  589.885
709.41  570.893  511.237
686.723  564.138  513.591
655.03  550.661  518.557
526.681  572.461  673.027
543.755  570.69  659.817
563.521  569.131  634.981
637.153  429.66  696.04
628.56  443.653  686.886
617.643  473.548  680.535
508.05  506.907  516.892
521.166  507.472  536.944
532.435  499.661  557.7
507.353  502.363  467.87
510.016  500.304  484.588
517.56  498.66  513.961
757.625  453.057  562.579
748.311  462.695  565.992
712.935  463.879  552.599
510.664  506.126  397.7
529.449  507.573  413.218
546.386  498.891  426.872
509.339  522.207  596.765
511.913  517.057  572.873
519.241  513.724  546.596
556.056  534.184  720.045
551.239  531.425  700.435
544.255  527.274  670.146
439.262  480.291  385.114
448.868  479.76  404.495
454.662  484.906  430.62
507.874  603.376  698.659
502.156  590.796  676.419
497.976  584.227  651.523
683.84  553.133  361.313
665.857  550.223  374.286
658.799  560.422  405.89
548.699  594.186  585.846
561.876  591.259  571.413
578.44  586.405  547.804
517.837  526.965  433.691
537.306  541.949  456.703
546.85  554.337  480.324
481.207  328.943  498.728
489.879  349.422  499.975
494.499  375.484  494.626
478.613  500.098  544.438
489.454  487.522  545.794
491.3  461.267  532.768
576.264  541.113  361.498
568.648  535.551  379.555
549.795  518.373  399.774
558.672  485.553  629.844
559.422  492.982  612.721
562.482  497.218  585.606
505.116  538.032  731.255
506.669  536.269  715.062
515.672  526.109  683.003
602.417  571.82  484.651
592.403  563.134  499.492
581.52  555.866  527.289
566.398  469.1  321.693
563.128  476.094  337.735
563.896  481.613  362.951
453.722  545.962  583.971
470.235  549.701  576.238
488.159  542.597  553.247
508.922  506.236  493.59
492.711  505.252  499.682
492.75  525.082  528.687
523.053  484.904  282.068
519.161  488.463  301.495
517.501  495.926  333.056
504.875  501.708  520.067
507.976  502.383  501.604
510.541  503.461  474.967
518.091  768.969  449.596
527.551  762.045  457.776
524.577  731.307  460.255
579.196  674.19  289.667
571.99  680.188  308.137
563.755  689.509  336.26
606.317  434.179  249.618
600.725  454.714  254.9
594.538  482.831  264.906
505.664  555.899  569.077
505.005  546.826  546.29
518.961  539.026  519.287
595.964  384.178  527.149
582.973  400.15  521.703
577.469  431.603  527.027
546.573  497.736  541.142
556.2  479.071  537.463
560.785  452.221  528.712
516.021  439.647  408.789
516.99  437.825  422.946
531.326  437.065  449.24
506.742  412.346  492.356
517.8  427.39  480.985
534.069  438.42  457.936
283.825  463.933  608.111
303.724  464.849  598.254
329.238  466.054  587.411
491.251  478.145  504.476
475.208  477.137  513.742
444.083  465.647  521.512
415.921  692.126  308.266
418.753  685.266  324.339
425.038  670.843  348.748
533.866  497.561  541.442
522.384  509.68  525.224
511.334  530.214  504.625
602.201  485.126  524.882
586.219  494.165  523.047
555.869  502.394  511.419
511.767  511.497  514.867
534.345  508.547  516.978
558.951  502.969  510.976
459.448  464.182  702.031
469.947  469.322  688.648
482.853  478.095  659.758
472.854  410.702  600.441
474.932  426.492  617.067
477.346  447.906  635.692
518.313  561.531  543.614
516.482  550.849  560.422
510.304  532.135  580.407
493.951  455.486  335.071
496.276  463.292  355.243
497.772  473.408  384.454
509.503  480.303  445.826
502.256  474.507  424.063
492.613  471.16  395.054
505.093  511.351  443.351
499.397  499.924  426.469
495.979  479.038  403.11
526.235  490.822  615.505
526.587  491.152  599.107
518.314  488.484  565.524
773.517  482.174  517.151
751.343  479.223  517.859
724.345  484.723  526.75
539.848  440.763  343.345
547.01  437.326  353.071
575.62  447.685  377.283
617.649  549.1  493.339
612.44  538.439  480.568
598.948  511.958  451.455
383.556  579.692  583.09
403.159  576.978  574.487
426.299  573.173  561.671
453.573  538.676  423.439
449.269  543.651  441.814
441.065  548.112  466.893
363.304  594.335  503.718
381.824  585.406  496.817
403.394  568.279  483.224
544.901  483.702  391.172
527.357  488.135  399.124
504.1  500.954  413.896
497.574  499.572  620.814
500.203  498.536  601.796
496.088  496.141  566.5
628.561  699.808  641.756
625.172  688.272  639.438
598.447  652.684  622.796
533.371  534.019  433.866
546.824  552.26  455.814
551.339  561.634  476.033
485.522  501.261  561.985
499.894  515.077  550.413
513.854  529.781  527.578
510.569  510.799  536.31
507.522  525.291  524.47
524.919  557.306  516.994
523.653  483.635  704.669
519.136  487.691  682.961
519.944  497.388  654.387
463.791  572.01  438.753
459.859  558.841  449.229
473.482  553.88  481.78
443.291  502.828  513.317
450.368  517.379  501.609
462.151  537.703  486.732
618.313  476.03  514.82
601.083  486.279  513.292
574.759  498.726  509.339
497.919  531.938  479.314
520.49  528.391  491.586
543.714  512.124  495.594
499.318  530.141  560.177
509.047  525.217  541.553
523.489  515.646  516.522
418.635  417.466  683.917
422.411  424.27  661.795
445.583  447.422  649.27
527.894  505.691  539.364
513.522  496.566  553.23
496.701  481.835  574.666
549.762  513.191  453.832
535.487  505.139  467.855
530.886  502.23  498.543
